-0.090600 -0.167650 0.061100 0.000000 0.000000 0.000000 
-0.090000 -0.184250 0.073500 0.000000 0.000000 0.000000 
-0.090000 -0.188150 0.077500 0.000000 0.000000 0.000000 
-0.093100 -0.194150 0.094200 0.000000 0.000000 0.000000 
-0.092200 -0.195850 0.092400 0.000000 0.000000 0.000000 
-0.102800 -0.160050 0.085000 0.000000 0.000000 0.000000 
-0.109600 -0.137750 0.067400 0.000000 0.000000 0.000000 
-0.105900 -0.159350 0.086400 0.000000 0.000000 0.000000 
-0.127800 -0.100850 0.031400 0.000000 0.000000 0.000000 
-0.123600 -0.128650 0.054800 0.000000 0.000000 0.000000 
-0.127200 -0.138750 0.066000 0.000000 0.000000 0.000000 
-0.121700 -0.185150 0.090900 0.000000 0.000000 0.000000 
-0.139000 -0.110950 0.039700 0.000000 0.000000 0.000000 
-0.149100 -0.093550 0.026500 0.000000 0.000000 0.000000 
-0.137800 -0.142050 0.058600 0.000000 0.000000 0.000000 
-0.137300 -0.161950 0.061900 0.000000 0.000000 0.000000 
-0.128800 -0.183250 0.085300 0.000000 0.000000 0.000000 
-0.147100 -0.118750 0.047900 0.000000 0.000000 0.000000 
-0.139800 -0.134350 0.060200 0.000000 0.000000 0.000000 
-0.142800 -0.126550 0.063000 0.000000 0.000000 0.000000 
-0.142000 -0.149750 0.062400 0.000000 0.000000 0.000000 
-0.152000 -0.116450 0.048600 0.000000 0.000000 0.000000 
-0.147000 -0.137050 0.060500 0.000000 0.000000 0.000000 
-0.144800 -0.165850 0.066100 0.000000 0.000000 0.000000 
-0.148900 -0.150050 0.063100 0.000000 0.000000 0.000000 
-0.154200 -0.201850 0.061900 0.000000 0.000000 0.000000 
-0.151600 -0.210750 0.061100 0.000000 0.000000 0.000000 
-0.160500 -0.109750 0.057700 0.000000 0.000000 0.000000 
-0.157100 -0.212950 0.064800 0.000000 0.000000 0.000000 
-0.172000 -0.098650 0.030900 0.000000 0.000000 0.000000 
-0.158100 -0.147350 0.085000 0.000000 0.000000 0.000000 
-0.165300 -0.122550 0.067400 0.000000 0.000000 0.000000 
-0.165900 -0.125550 0.067000 0.000000 0.000000 0.000000 
-0.159400 -0.143450 0.075800 0.000000 0.000000 0.000000 
-0.162500 -0.140150 0.075500 0.000000 0.000000 0.000000 
-0.160500 -0.150450 0.089200 0.000000 0.000000 0.000000 
-0.159400 -0.155850 0.098400 0.000000 0.000000 0.000000 
0.181300 -0.140650 0.062200 0.000000 0.000000 0.000000 
0.152100 -0.171250 0.125500 0.000000 0.000000 0.000000 
0.152200 -0.163950 0.115000 0.000000 0.000000 0.000000 
0.148200 -0.152950 0.099500 0.000000 0.000000 0.000000 
0.164600 -0.112450 0.046700 0.000000 0.000000 0.000000 
0.143300 -0.191450 0.088900 0.000000 0.000000 0.000000 
0.164800 -0.110550 0.016400 0.000000 0.000000 0.000000 
0.148600 -0.164050 0.060700 0.000000 0.000000 0.000000 
0.148000 -0.164750 0.060800 0.000000 0.000000 0.000000 
0.160000 -0.110750 0.014100 0.000000 0.000000 0.000000 
0.132200 -0.190350 0.098700 0.000000 0.000000 0.000000 
0.133200 -0.171250 0.083400 0.000000 0.000000 0.000000 
0.138700 -0.136450 0.051900 0.000000 0.000000 0.000000 
0.157800 -0.091850 -0.029200 0.000000 0.000000 0.000000 
0.140700 -0.097750 0.018900 0.000000 0.000000 0.000000 
0.123800 -0.163750 0.078600 0.000000 0.000000 0.000000 
0.121300 -0.149250 0.069200 0.000000 0.000000 0.000000 
0.128800 -0.136750 0.037700 0.000000 0.000000 0.000000 
0.124800 -0.120250 0.017900 0.000000 0.000000 0.000000 
0.125600 -0.111650 0.011100 0.000000 0.000000 0.000000 
0.121300 -0.103550 -0.006200 0.000000 0.000000 0.000000 
0.102300 -0.140250 0.057800 0.000000 0.000000 0.000000 
0.092200 -0.151750 0.062000 0.000000 0.000000 0.000000 
0.098100 0.061550 0.010400 0.000000 0.000000 0.000000 
0.094200 -0.122950 0.041700 0.000000 0.000000 0.000000 
0.093500 -0.100850 0.018400 0.000000 0.000000 0.000000 
0.085100 -0.153850 0.061900 0.000000 0.000000 0.000000 
0.082900 -0.164150 0.069000 0.000000 0.000000 0.000000 
0.102100 -0.093950 -0.038300 0.000000 0.000000 0.000000 
0.101900 -0.094550 -0.037800 0.000000 0.000000 0.000000 
0.089200 -0.109750 0.028300 0.000000 0.000000 0.000000 
0.088900 -0.110950 0.029400 0.000000 0.000000 0.000000 
0.096900 0.116050 -0.048100 0.000000 0.000000 0.000000 
0.102000 -0.026850 -0.100900 0.000000 0.000000 0.000000 
0.078100 -0.141650 0.042400 0.000000 0.000000 0.000000 
0.070600 -0.192350 0.081500 0.000000 0.000000 0.000000 
0.091800 -0.083250 -0.055000 0.000000 0.000000 0.000000 
0.089900 0.043350 -0.080700 0.000000 0.000000 0.000000 
0.076200 -0.091950 0.004100 0.000000 0.000000 0.000000 
0.075300 -0.117050 0.019100 0.000000 0.000000 0.000000 
0.074900 -0.095650 0.006600 0.000000 0.000000 0.000000 
0.077900 -0.043450 -0.089300 0.000000 0.000000 0.000000 
0.059100 -0.143050 0.030400 0.000000 0.000000 0.000000 
0.059100 -0.096650 -0.010000 0.000000 0.000000 0.000000 
0.059900 -0.098650 -0.008400 0.000000 0.000000 0.000000 
0.053900 -0.177150 0.059400 0.000000 0.000000 0.000000 
0.052000 -0.175150 0.058900 0.000000 0.000000 0.000000 
0.049400 0.028050 0.019500 0.000000 0.000000 0.000000 
0.042600 -0.200150 0.075600 0.000000 0.000000 0.000000 
0.052900 -0.078250 -0.024100 0.000000 0.000000 0.000000 
0.043800 -0.159050 0.045200 0.000000 0.000000 0.000000 
0.042600 -0.115250 0.009400 0.000000 0.000000 0.000000 
0.038100 0.068050 0.024200 0.000000 0.000000 0.000000 
0.035500 -0.183250 0.061500 0.000000 0.000000 0.000000 
0.035300 -0.160250 0.043700 0.000000 0.000000 0.000000 
0.024200 -0.137850 0.029500 0.000000 0.000000 0.000000 
0.028000 0.071850 0.028400 0.000000 0.000000 0.000000 
0.020800 -0.124950 0.020600 0.000000 0.000000 0.000000 
0.020100 -0.204950 0.072500 0.000000 0.000000 0.000000 
0.015500 0.182350 0.032000 0.000000 0.000000 0.000000 
0.016500 -0.168450 0.050400 0.000000 0.000000 0.000000 
0.012100 0.041550 0.047500 0.000000 0.000000 0.000000 
0.015100 -0.119150 0.016700 0.000000 0.000000 0.000000 
-0.000600 0.187350 0.020300 0.000000 0.000000 0.000000 
-0.007100 0.027750 0.041900 0.000000 0.000000 0.000000 
-0.005600 -0.191150 0.086500 0.000000 0.000000 0.000000 
-0.017400 0.191850 0.007500 0.000000 0.000000 0.000000 
-0.027100 0.210650 -0.029400 0.000000 0.000000 0.000000 
-0.024500 -0.134050 0.046500 0.000000 0.000000 0.000000 
-0.028100 -0.147050 0.054400 0.000000 0.000000 0.000000 
-0.031000 -0.189150 0.077200 0.000000 0.000000 0.000000 
-0.040100 -0.085550 -0.010000 0.000000 0.000000 0.000000 
-0.037400 0.014550 0.016700 0.000000 0.000000 0.000000 
-0.041600 0.040950 0.017400 0.000000 0.000000 0.000000 
-0.046500 -0.127150 0.024900 0.000000 0.000000 0.000000 
-0.045600 -0.142550 0.035200 0.000000 0.000000 0.000000 
-0.049900 -0.171850 0.054300 0.000000 0.000000 0.000000 
-0.053600 -0.178550 0.063900 0.000000 0.000000 0.000000 
-0.052700 -0.187950 0.071800 0.000000 0.000000 0.000000 
-0.065900 -0.097250 -0.014900 0.000000 0.000000 0.000000 
-0.057800 -0.156750 0.043800 0.000000 0.000000 0.000000 
-0.065200 -0.108450 -0.005700 0.000000 0.000000 0.000000 
-0.060000 -0.171350 0.057400 0.000000 0.000000 0.000000 
-0.060100 -0.192650 0.074300 0.000000 0.000000 0.000000 
-0.078000 -0.110650 -0.005100 0.000000 0.000000 0.000000 
-0.069500 -0.181550 0.066100 0.000000 0.000000 0.000000 
-0.094100 0.004250 -0.082100 0.000000 0.000000 0.000000 
-0.096400 0.004750 -0.080400 0.000000 0.000000 0.000000 
-0.091000 0.138250 -0.019400 0.000000 0.000000 0.000000 
-0.087800 0.137950 -0.018400 0.000000 0.000000 0.000000 
-0.073100 -0.188850 0.074700 0.000000 0.000000 0.000000 
-0.095000 -0.085750 -0.000400 0.000000 0.000000 0.000000 
-0.094400 -0.089850 0.004200 0.000000 0.000000 0.000000 
-0.088800 -0.128450 0.016300 0.000000 0.000000 0.000000 
-0.092900 -0.116950 0.038600 0.000000 0.000000 0.000000 
-0.088700 -0.164650 0.056000 0.000000 0.000000 0.000000 
-0.087900 -0.165350 0.055900 0.000000 0.000000 0.000000 
-0.088000 -0.166750 0.056900 0.000000 0.000000 0.000000 
-0.094900 -0.118550 0.046200 0.000000 0.000000 0.000000 
-0.110900 -0.123150 0.036000 0.000000 0.000000 0.000000 
-0.133100 0.051750 -0.059000 0.000000 0.000000 0.000000 
-0.112000 -0.137250 0.067000 0.000000 0.000000 0.000000 
-0.124000 -0.106650 0.037300 0.000000 0.000000 0.000000 
-0.116500 -0.137350 0.067300 0.000000 0.000000 0.000000 
-0.143900 -0.078850 0.004400 0.000000 0.000000 0.000000 
-0.120600 -0.138750 0.068100 0.000000 0.000000 0.000000 
-0.130300 -0.129250 0.056500 0.000000 0.000000 0.000000 
-0.157500 -0.072650 -0.017700 0.000000 0.000000 0.000000 
-0.139200 -0.123050 0.052100 0.000000 0.000000 0.000000 
-0.139900 -0.149850 0.060400 0.000000 0.000000 0.000000 
-0.144900 -0.196650 0.052200 0.000000 0.000000 0.000000 
-0.142300 -0.208650 0.059600 0.000000 0.000000 0.000000 
-0.145500 -0.219350 0.066200 0.000000 0.000000 0.000000 
-0.166000 -0.092150 0.018700 0.000000 0.000000 0.000000 
-0.152300 -0.131850 0.059500 0.000000 0.000000 0.000000 
-0.153900 -0.139150 0.058400 0.000000 0.000000 0.000000 
-0.171500 -0.088350 0.011500 0.000000 0.000000 0.000000 
-0.184700 -0.071550 -0.020000 0.000000 0.000000 0.000000 
-0.157600 -0.108550 0.058100 0.000000 0.000000 0.000000 
-0.160700 -0.109150 0.057800 0.000000 0.000000 0.000000 
-0.165100 -0.102650 0.055100 0.000000 0.000000 0.000000 
-0.158600 -0.140550 0.063600 0.000000 0.000000 0.000000 
-0.158100 -0.144850 0.076400 0.000000 0.000000 0.000000 
-0.182100 -0.082050 0.011900 0.000000 0.000000 0.000000 
-0.186500 -0.087550 0.035900 0.000000 0.000000 0.000000 
-0.162400 -0.138750 0.093000 0.000000 0.000000 0.000000 
0.156700 -0.159750 0.123600 0.000000 0.000000 0.000000 
0.156100 -0.159750 0.122900 0.000000 0.000000 0.000000 
0.158800 -0.149050 0.117000 0.000000 0.000000 0.000000 
0.149000 -0.168950 0.118300 0.000000 0.000000 0.000000 
0.183900 -0.092850 0.019500 0.000000 0.000000 0.000000 
0.170800 -0.114150 0.042800 0.000000 0.000000 0.000000 
0.172200 -0.103350 0.036400 0.000000 0.000000 0.000000 
0.166400 -0.111850 0.046000 0.000000 0.000000 0.000000 
0.142800 -0.164550 0.083700 0.000000 0.000000 0.000000 
0.142800 -0.181750 0.082000 0.000000 0.000000 0.000000 
0.140600 -0.155650 0.062300 0.000000 0.000000 0.000000 
0.121400 -0.168550 0.083600 0.000000 0.000000 0.000000 
0.122100 -0.148050 0.066700 0.000000 0.000000 0.000000 
0.130700 -0.104950 0.004700 0.000000 0.000000 0.000000 
0.130200 -0.080550 -0.018900 0.000000 0.000000 0.000000 
0.128400 -0.093950 -0.012900 0.000000 0.000000 0.000000 
0.124300 -0.109250 0.006600 0.000000 0.000000 0.000000 
0.127100 -0.095950 -0.011200 0.000000 0.000000 0.000000 
0.125200 -0.097850 -0.010000 0.000000 0.000000 0.000000 
0.100600 -0.186250 0.094000 0.000000 0.000000 0.000000 
0.093900 -0.146950 0.059600 0.000000 0.000000 0.000000 
0.092400 -0.157950 0.066500 0.000000 0.000000 0.000000 
0.097500 -0.129850 0.048300 0.000000 0.000000 0.000000 
0.102500 -0.096250 -0.036100 0.000000 0.000000 0.000000 
0.097500 -0.089650 -0.043300 0.000000 0.000000 0.000000 
0.090800 -0.104450 0.023600 0.000000 0.000000 0.000000 
0.100800 -0.068750 -0.060300 0.000000 0.000000 0.000000 
0.099100 -0.058250 -0.083100 0.000000 0.000000 0.000000 
0.082200 -0.114350 0.028300 0.000000 0.000000 0.000000 
0.095800 -0.061450 -0.081600 0.000000 0.000000 0.000000 
0.091400 -0.081050 -0.056100 0.000000 0.000000 0.000000 
0.091700 -0.007350 -0.102200 0.000000 0.000000 0.000000 
0.072900 0.121950 0.008000 0.000000 0.000000 0.000000 
0.073000 0.097950 -0.005800 0.000000 0.000000 0.000000 
0.082500 -0.001550 -0.104700 0.000000 0.000000 0.000000 
0.082500 -0.012050 -0.114600 0.000000 0.000000 0.000000 
0.076200 -0.066650 -0.066100 0.000000 0.000000 0.000000 
0.068200 -0.088250 -0.009000 0.000000 0.000000 0.000000 
0.060400 -0.174350 0.058300 0.000000 0.000000 0.000000 
0.061800 -0.185650 0.068200 0.000000 0.000000 0.000000 
0.071400 -0.064550 -0.064800 0.000000 0.000000 0.000000 
0.070100 -0.076050 -0.035700 0.000000 0.000000 0.000000 
0.063300 -0.056050 -0.069200 0.000000 0.000000 0.000000 
0.043400 -0.199050 0.075100 0.000000 0.000000 0.000000 
0.046600 -0.084150 -0.014900 0.000000 0.000000 0.000000 
0.038500 0.150850 0.011300 0.000000 0.000000 0.000000 
0.026500 -0.189950 0.061100 0.000000 0.000000 0.000000 
0.021900 0.004050 0.035500 0.000000 0.000000 0.000000 
0.026900 -0.046850 -0.029400 0.000000 0.000000 0.000000 
0.029800 -0.061350 -0.036800 0.000000 0.000000 0.000000 
0.026500 -0.180150 0.058700 0.000000 0.000000 0.000000 
0.022700 -0.004850 0.038200 0.000000 0.000000 0.000000 
0.022800 -0.164550 0.047900 0.000000 0.000000 0.000000 
0.021000 0.104550 0.019000 0.000000 0.000000 0.000000 
0.022300 -0.143550 0.033200 0.000000 0.000000 0.000000 
0.022900 -0.147350 0.035700 0.000000 0.000000 0.000000 
0.012800 0.010750 0.037600 0.000000 0.000000 0.000000 
0.012300 -0.000350 0.039800 0.000000 0.000000 0.000000 
0.015000 -0.081650 -0.033500 0.000000 0.000000 0.000000 
0.014500 -0.116850 0.016500 0.000000 0.000000 0.000000 
0.013400 -0.185850 0.061200 0.000000 0.000000 0.000000 
0.010900 -0.204550 0.078000 0.000000 0.000000 0.000000 
0.008300 -0.106350 0.013000 0.000000 0.000000 0.000000 
0.008600 -0.203150 0.078700 0.000000 0.000000 0.000000 
0.007300 -0.204050 0.080400 0.000000 0.000000 0.000000 
0.002400 0.058250 0.060100 0.000000 0.000000 0.000000 
0.002500 -0.124450 0.021400 0.000000 0.000000 0.000000 
-0.001800 0.006350 0.037000 0.000000 0.000000 0.000000 
0.001900 -0.189250 0.074100 0.000000 0.000000 0.000000 
-0.002000 0.021350 0.042900 0.000000 0.000000 0.000000 
-0.001700 -0.172850 0.064100 0.000000 0.000000 0.000000 
0.000400 -0.195750 0.080000 0.000000 0.000000 0.000000 
-0.005900 0.195150 0.007400 0.000000 0.000000 0.000000 
-0.005900 -0.054250 -0.027000 0.000000 0.000000 0.000000 
-0.010700 0.193850 0.006900 0.000000 0.000000 0.000000 
-0.007700 0.063550 0.055700 0.000000 0.000000 0.000000 
-0.011200 0.016750 0.037700 0.000000 0.000000 0.000000 
-0.010300 -0.080750 -0.032900 0.000000 0.000000 0.000000 
-0.012400 -0.081850 -0.027000 0.000000 0.000000 0.000000 
-0.009700 -0.154850 0.057400 0.000000 0.000000 0.000000 
-0.010000 -0.162350 0.067200 0.000000 0.000000 0.000000 
-0.012700 -0.111750 0.027800 0.000000 0.000000 0.000000 
-0.017100 0.091450 0.017900 0.000000 0.000000 0.000000 
-0.023300 -0.078250 -0.022300 0.000000 0.000000 0.000000 
-0.020100 -0.171350 0.074300 0.000000 0.000000 0.000000 
-0.024700 -0.110950 0.029100 0.000000 0.000000 0.000000 
-0.029200 0.189450 0.005900 0.000000 0.000000 0.000000 
-0.029200 -0.109050 0.025400 0.000000 0.000000 0.000000 
-0.036900 -0.081550 -0.012100 0.000000 0.000000 0.000000 
-0.037500 0.006550 0.016900 0.000000 0.000000 0.000000 
-0.042900 -0.077250 -0.021600 0.000000 0.000000 0.000000 
-0.037100 -0.114950 0.026900 0.000000 0.000000 0.000000 
-0.045400 -0.077650 -0.022600 0.000000 0.000000 0.000000 
-0.037400 -0.169050 0.058600 0.000000 0.000000 0.000000 
-0.043700 -0.139950 0.036300 0.000000 0.000000 0.000000 
-0.040900 -0.139150 0.038500 0.000000 0.000000 0.000000 
-0.055400 0.111550 0.007900 0.000000 0.000000 0.000000 
-0.061600 -0.086650 -0.017500 0.000000 0.000000 0.000000 
-0.054100 -0.142750 0.030600 0.000000 0.000000 0.000000 
-0.058600 -0.131050 0.016900 0.000000 0.000000 0.000000 
-0.061200 0.089150 -0.009800 0.000000 0.000000 0.000000 
-0.061700 0.067150 0.001100 0.000000 0.000000 0.000000 
-0.061800 0.064450 0.001100 0.000000 0.000000 0.000000 
-0.062100 0.061350 0.000600 0.000000 0.000000 0.000000 
-0.052600 -0.200050 0.075300 0.000000 0.000000 0.000000 
-0.071700 0.098050 -0.034700 0.000000 0.000000 0.000000 
-0.077600 -0.065150 -0.064400 0.000000 0.000000 0.000000 
-0.057100 -0.194150 0.074600 0.000000 0.000000 0.000000 
-0.062500 -0.184050 0.067900 0.000000 0.000000 0.000000 
-0.081200 -0.038250 -0.100800 0.000000 0.000000 0.000000 
-0.082100 -0.069650 -0.054600 0.000000 0.000000 0.000000 
-0.079100 0.143050 -0.019200 0.000000 0.000000 0.000000 
-0.081600 -0.088150 -0.029000 0.000000 0.000000 0.000000 
-0.082100 -0.094650 -0.020400 0.000000 0.000000 0.000000 
-0.083000 0.111850 -0.033600 0.000000 0.000000 0.000000 
-0.084800 -0.052750 -0.071900 0.000000 0.000000 0.000000 
-0.078700 -0.122250 0.008200 0.000000 0.000000 0.000000 
-0.090600 -0.090550 0.001900 0.000000 0.000000 0.000000 
-0.104700 -0.064650 -0.037200 0.000000 0.000000 0.000000 
-0.098500 -0.084650 -0.000700 0.000000 0.000000 0.000000 
-0.088300 -0.146050 0.034900 0.000000 0.000000 0.000000 
-0.096500 -0.094050 0.014500 0.000000 0.000000 0.000000 
-0.099000 -0.093650 0.014800 0.000000 0.000000 0.000000 
-0.092700 -0.118850 0.045100 0.000000 0.000000 0.000000 
-0.092200 -0.175250 0.073100 0.000000 0.000000 0.000000 
-0.100000 -0.128350 0.056100 0.000000 0.000000 0.000000 
-0.098100 -0.178550 0.097300 0.000000 0.000000 0.000000 
-0.116900 -0.115750 0.026600 0.000000 0.000000 0.000000 
-0.122900 -0.107250 0.036700 0.000000 0.000000 0.000000 
-0.125600 -0.106950 0.038600 0.000000 0.000000 0.000000 
-0.112100 -0.157850 0.085100 0.000000 0.000000 0.000000 
-0.127900 -0.106650 0.038300 0.000000 0.000000 0.000000 
-0.125000 -0.117850 0.047400 0.000000 0.000000 0.000000 
-0.122800 -0.132350 0.056900 0.000000 0.000000 0.000000 
-0.109700 -0.184350 0.102300 0.000000 0.000000 0.000000 
-0.124500 -0.131550 0.057700 0.000000 0.000000 0.000000 
-0.125600 -0.133950 0.062400 0.000000 0.000000 0.000000 
-0.136300 -0.108250 0.034500 0.000000 0.000000 0.000000 
-0.126300 -0.137450 0.066100 0.000000 0.000000 0.000000 
-0.124000 -0.148550 0.072900 0.000000 0.000000 0.000000 
-0.156700 -0.070550 -0.022700 0.000000 0.000000 0.000000 
-0.127300 -0.149650 0.070400 0.000000 0.000000 0.000000 
-0.120700 -0.184250 0.090300 0.000000 0.000000 0.000000 
-0.120900 -0.185950 0.093200 0.000000 0.000000 0.000000 
-0.137600 -0.108950 0.035700 0.000000 0.000000 0.000000 
-0.138300 -0.128250 0.055500 0.000000 0.000000 0.000000 
-0.138600 -0.139450 0.059900 0.000000 0.000000 0.000000 
-0.158700 -0.082650 0.005700 0.000000 0.000000 0.000000 
-0.140600 -0.128150 0.059500 0.000000 0.000000 0.000000 
-0.140400 -0.148850 0.060000 0.000000 0.000000 0.000000 
-0.163700 -0.082250 0.002200 0.000000 0.000000 0.000000 
-0.142900 -0.127250 0.063900 0.000000 0.000000 0.000000 
-0.144400 -0.204050 0.055100 0.000000 0.000000 0.000000 
-0.143700 -0.148650 0.064200 0.000000 0.000000 0.000000 
-0.147600 -0.184250 0.047700 0.000000 0.000000 0.000000 
-0.148500 -0.198750 0.055000 0.000000 0.000000 0.000000 
-0.177100 -0.071150 -0.018100 0.000000 0.000000 0.000000 
-0.162500 -0.098950 0.028600 0.000000 0.000000 0.000000 
-0.159300 -0.101250 0.030800 0.000000 0.000000 0.000000 
-0.148700 -0.141750 0.059600 0.000000 0.000000 0.000000 
-0.163700 -0.096350 0.025900 0.000000 0.000000 0.000000 
-0.154500 -0.116450 0.056500 0.000000 0.000000 0.000000 
-0.154300 -0.117450 0.057600 0.000000 0.000000 0.000000 
-0.150400 -0.168950 0.067400 0.000000 0.000000 0.000000 
-0.154000 -0.201350 0.062000 0.000000 0.000000 0.000000 
-0.153400 -0.148750 0.074900 0.000000 0.000000 0.000000 
-0.153900 -0.146050 0.075600 0.000000 0.000000 0.000000 
-0.159600 -0.214950 0.065100 0.000000 0.000000 0.000000 
-0.171300 -0.094750 0.047100 0.000000 0.000000 0.000000 
-0.164900 -0.133550 0.076400 0.000000 0.000000 0.000000 
-0.171600 -0.111950 0.067200 0.000000 0.000000 0.000000 
-0.161000 -0.144850 0.091100 0.000000 0.000000 0.000000 
-0.170700 -0.125950 0.074300 0.000000 0.000000 0.000000 
-0.168900 -0.132550 0.077300 0.000000 0.000000 0.000000 
-0.162900 -0.142150 0.093500 0.000000 0.000000 0.000000 
-0.155200 -0.183850 0.111600 0.000000 0.000000 0.000000 
0.170300 -0.141050 0.093300 0.000000 0.000000 0.000000 
0.155700 -0.161950 0.123400 0.000000 0.000000 0.000000 
0.168400 -0.143350 0.094800 0.000000 0.000000 0.000000 
0.187800 -0.116050 0.038400 0.000000 0.000000 0.000000 
0.152200 -0.172650 0.127800 0.000000 0.000000 0.000000 
0.150300 -0.171750 0.124700 0.000000 0.000000 0.000000 
0.148800 -0.151750 0.098400 0.000000 0.000000 0.000000 
0.170600 -0.105150 0.027300 0.000000 0.000000 0.000000 
0.165900 -0.111150 0.045700 0.000000 0.000000 0.000000 
0.147600 -0.175750 0.094400 0.000000 0.000000 0.000000 
0.169000 -0.097150 -0.008100 0.000000 0.000000 0.000000 
0.141600 -0.141450 0.057800 0.000000 0.000000 0.000000 
0.155600 -0.100650 -0.006300 0.000000 0.000000 0.000000 
0.159200 -0.103150 -0.004300 0.000000 0.000000 0.000000 
0.134500 -0.147850 0.049600 0.000000 0.000000 0.000000 
0.136900 -0.106450 0.024100 0.000000 0.000000 0.000000 
0.127000 -0.129050 0.027700 0.000000 0.000000 0.000000 
0.124500 -0.109850 0.007700 0.000000 0.000000 0.000000 
0.121300 -0.088350 -0.022800 0.000000 0.000000 0.000000 
0.115100 -0.093950 -0.021000 0.000000 0.000000 0.000000 
0.116100 -0.061050 -0.054700 0.000000 0.000000 0.000000 
0.115600 -0.056250 -0.058700 0.000000 0.000000 0.000000 
0.109000 -0.062850 -0.063100 0.000000 0.000000 0.000000 
0.107700 -0.084650 -0.042600 0.000000 0.000000 0.000000 
0.093900 -0.121550 0.040400 0.000000 0.000000 0.000000 
0.091500 -0.129050 0.047100 0.000000 0.000000 0.000000 
0.091200 0.080750 -0.013600 0.000000 0.000000 0.000000 
0.087700 -0.108450 0.026800 0.000000 0.000000 0.000000 
0.085600 -0.112650 0.029200 0.000000 0.000000 0.000000 
0.091100 0.088250 -0.022300 0.000000 0.000000 0.000000 
0.100400 -0.058350 -0.082200 0.000000 0.000000 0.000000 
0.078300 -0.154750 0.054300 0.000000 0.000000 0.000000 
0.080400 -0.140250 0.045000 0.000000 0.000000 0.000000 
0.079300 -0.098350 0.013400 0.000000 0.000000 0.000000 
0.070100 -0.186950 0.076800 0.000000 0.000000 0.000000 
0.084000 0.003950 -0.102100 0.000000 0.000000 0.000000 
0.082100 0.001350 -0.103900 0.000000 0.000000 0.000000 
0.070200 -0.085150 -0.008700 0.000000 0.000000 0.000000 
0.060400 -0.184350 0.065800 0.000000 0.000000 0.000000 
0.077300 -0.046450 -0.089600 0.000000 0.000000 0.000000 
0.055400 -0.133550 0.021300 0.000000 0.000000 0.000000 
0.048500 -0.201450 0.076400 0.000000 0.000000 0.000000 
0.047000 0.064050 0.020200 0.000000 0.000000 0.000000 
0.060000 -0.074750 -0.032400 0.000000 0.000000 0.000000 
0.046500 -0.152550 0.038600 0.000000 0.000000 0.000000 
0.052500 -0.079650 -0.021700 0.000000 0.000000 0.000000 
0.036500 -0.125050 0.017900 0.000000 0.000000 0.000000 
0.033500 -0.160550 0.044200 0.000000 0.000000 0.000000 
0.029800 0.179650 0.026600 0.000000 0.000000 0.000000 
0.023400 -0.165850 0.049200 0.000000 0.000000 0.000000 
0.019400 -0.202450 0.069600 0.000000 0.000000 0.000000 
0.015800 -0.004050 0.040000 0.000000 0.000000 0.000000 
0.012600 0.116350 0.031300 0.000000 0.000000 0.000000 
0.010500 0.105650 0.028800 0.000000 0.000000 0.000000 
0.012500 -0.081550 -0.033400 0.000000 0.000000 0.000000 
0.010800 -0.172050 0.051100 0.000000 0.000000 0.000000 
0.009700 -0.198550 0.070800 0.000000 0.000000 0.000000 
0.010700 -0.203650 0.077200 0.000000 0.000000 0.000000 
0.004000 0.078350 0.056100 0.000000 0.000000 0.000000 
0.003100 -0.079950 -0.036000 0.000000 0.000000 0.000000 
0.001600 -0.123350 0.021700 0.000000 0.000000 0.000000 
-0.001200 -0.196450 0.082300 0.000000 0.000000 0.000000 
-0.005500 0.195450 0.007700 0.000000 0.000000 0.000000 
-0.006800 0.046950 0.046000 0.000000 0.000000 0.000000 
-0.009900 -0.155650 0.058300 0.000000 0.000000 0.000000 
-0.009900 -0.162350 0.064800 0.000000 0.000000 0.000000 
-0.013500 -0.014050 0.034200 0.000000 0.000000 0.000000 
-0.013800 -0.110650 0.027300 0.000000 0.000000 0.000000 
-0.016900 -0.014650 0.032000 0.000000 0.000000 0.000000 
-0.013900 -0.160750 0.066600 0.000000 0.000000 0.000000 
-0.017600 -0.113450 0.029800 0.000000 0.000000 0.000000 
-0.021500 0.123150 0.029000 0.000000 0.000000 0.000000 
-0.018800 -0.126050 0.039200 0.000000 0.000000 0.000000 
-0.024200 -0.112350 0.030100 0.000000 0.000000 0.000000 
-0.024700 -0.196550 0.090200 0.000000 0.000000 0.000000 
-0.032900 -0.140550 0.046200 0.000000 0.000000 0.000000 
-0.034700 0.005350 0.018500 0.000000 0.000000 0.000000 
-0.034000 -0.141650 0.046300 0.000000 0.000000 0.000000 
-0.037900 0.013050 0.016200 0.000000 0.000000 0.000000 
-0.035800 0.008450 0.017800 0.000000 0.000000 0.000000 
-0.041900 -0.139350 0.038200 0.000000 0.000000 0.000000 
-0.039500 -0.169850 0.057800 0.000000 0.000000 0.000000 
-0.039800 -0.180550 0.066300 0.000000 0.000000 0.000000 
-0.056500 -0.121950 0.010700 0.000000 0.000000 0.000000 
-0.054300 -0.142150 0.030100 0.000000 0.000000 0.000000 
-0.055400 -0.164450 0.047600 0.000000 0.000000 0.000000 
-0.052000 -0.187550 0.072400 0.000000 0.000000 0.000000 
-0.060800 0.084750 -0.007900 0.000000 0.000000 0.000000 
-0.068600 0.159450 -0.033800 0.000000 0.000000 0.000000 
-0.073000 -0.080550 -0.039000 0.000000 0.000000 0.000000 
-0.071400 -0.086050 -0.028100 0.000000 0.000000 0.000000 
-0.070200 -0.091450 -0.021100 0.000000 0.000000 0.000000 
-0.071000 -0.090850 -0.022200 0.000000 0.000000 0.000000 
-0.059900 -0.169550 0.056100 0.000000 0.000000 0.000000 
-0.073800 -0.092050 -0.022400 0.000000 0.000000 0.000000 
-0.065600 -0.137250 0.023400 0.000000 0.000000 0.000000 
-0.066500 -0.161050 0.046500 0.000000 0.000000 0.000000 
-0.078300 -0.092850 -0.021700 0.000000 0.000000 0.000000 
-0.079900 -0.123050 0.009700 0.000000 0.000000 0.000000 
-0.089200 -0.073350 -0.021200 0.000000 0.000000 0.000000 
-0.091400 -0.072150 -0.019100 0.000000 0.000000 0.000000 
-0.087600 -0.116450 0.002500 0.000000 0.000000 0.000000 
-0.089900 -0.123950 0.013400 0.000000 0.000000 0.000000 
-0.090900 -0.152850 0.042900 0.000000 0.000000 0.000000 
-0.088100 -0.162750 0.054300 0.000000 0.000000 0.000000 
-0.092400 -0.131650 0.058100 0.000000 0.000000 0.000000 
-0.097200 -0.118350 0.045900 0.000000 0.000000 0.000000 
-0.091200 -0.167850 0.061400 0.000000 0.000000 0.000000 
-0.089600 -0.187550 0.076800 0.000000 0.000000 0.000000 
-0.097100 -0.128450 0.057100 0.000000 0.000000 0.000000 
-0.102000 -0.129650 0.056200 0.000000 0.000000 0.000000 
-0.105000 -0.138550 0.068700 0.000000 0.000000 0.000000 
-0.107500 -0.143950 0.074900 0.000000 0.000000 0.000000 
-0.112800 -0.147950 0.076500 0.000000 0.000000 0.000000 
-0.132300 -0.096450 0.025100 0.000000 0.000000 0.000000 
-0.144700 -0.077450 0.001500 0.000000 0.000000 0.000000 
-0.126100 -0.133350 0.061300 0.000000 0.000000 0.000000 
-0.141500 -0.085650 0.022200 0.000000 0.000000 0.000000 
-0.130400 -0.126950 0.054000 0.000000 0.000000 0.000000 
-0.124300 -0.160050 0.079900 0.000000 0.000000 0.000000 
-0.165500 -0.068550 -0.022900 0.000000 0.000000 0.000000 
-0.162100 -0.081750 0.002200 0.000000 0.000000 0.000000 
-0.148700 -0.103150 0.038000 0.000000 0.000000 0.000000 
-0.139300 -0.132350 0.059300 0.000000 0.000000 0.000000 
-0.142100 -0.209050 0.059900 0.000000 0.000000 0.000000 
-0.142900 -0.163750 0.064400 0.000000 0.000000 0.000000 
-0.152600 -0.131850 0.059500 0.000000 0.000000 0.000000 
-0.153400 -0.200150 0.061700 0.000000 0.000000 0.000000 
-0.156900 -0.135550 0.061600 0.000000 0.000000 0.000000 
-0.153300 -0.150350 0.075600 0.000000 0.000000 0.000000 
-0.158500 -0.132950 0.064700 0.000000 0.000000 0.000000 
-0.154700 -0.146150 0.075700 0.000000 0.000000 0.000000 
-0.161300 -0.126650 0.063500 0.000000 0.000000 0.000000 
-0.156400 -0.143450 0.076000 0.000000 0.000000 0.000000 
-0.182000 -0.085550 0.017500 0.000000 0.000000 0.000000 
-0.158700 -0.142750 0.076200 0.000000 0.000000 0.000000 
-0.161200 -0.139550 0.075300 0.000000 0.000000 0.000000 
-0.179300 -0.093050 0.037000 0.000000 0.000000 0.000000 
-0.187700 -0.084250 0.024200 0.000000 0.000000 0.000000 
-0.171700 -0.110850 0.067200 0.000000 0.000000 0.000000 
-0.169800 -0.122150 0.071100 0.000000 0.000000 0.000000 
-0.163100 -0.138850 0.092800 0.000000 0.000000 0.000000 
0.169500 -0.140650 0.092800 0.000000 0.000000 0.000000 
0.155600 -0.164450 0.124900 0.000000 0.000000 0.000000 
0.187800 -0.115850 0.038000 0.000000 0.000000 0.000000 
0.152800 -0.171350 0.127200 0.000000 0.000000 0.000000 
0.151700 -0.172450 0.126800 0.000000 0.000000 0.000000 
0.161600 -0.142650 0.090500 0.000000 0.000000 0.000000 
0.173400 -0.143350 0.060500 0.000000 0.000000 0.000000 
0.150900 -0.165550 0.119900 0.000000 0.000000 0.000000 
0.169900 -0.135550 0.051300 0.000000 0.000000 0.000000 
0.177100 -0.111950 0.041300 0.000000 0.000000 0.000000 
0.163200 -0.119450 0.050600 0.000000 0.000000 0.000000 
0.148800 -0.167450 0.062600 0.000000 0.000000 0.000000 
0.133900 -0.174850 0.086200 0.000000 0.000000 0.000000 
0.139400 -0.155050 0.062400 0.000000 0.000000 0.000000 
0.140100 -0.135350 0.052300 0.000000 0.000000 0.000000 
0.140300 -0.138950 0.054400 0.000000 0.000000 0.000000 
0.156000 -0.100850 -0.006200 0.000000 0.000000 0.000000 
0.157100 -0.102250 -0.004900 0.000000 0.000000 0.000000 
0.139400 -0.128750 0.045700 0.000000 0.000000 0.000000 
0.134900 -0.148750 0.050500 0.000000 0.000000 0.000000 
0.136100 -0.098850 0.017600 0.000000 0.000000 0.000000 
0.127100 -0.136550 0.036800 0.000000 0.000000 0.000000 
0.118700 -0.155050 0.072700 0.000000 0.000000 0.000000 
0.126600 -0.111450 0.011800 0.000000 0.000000 0.000000 
0.125800 -0.096250 -0.011300 0.000000 0.000000 0.000000 
0.117800 -0.090850 -0.020600 0.000000 0.000000 0.000000 
0.126800 0.029350 -0.084100 0.000000 0.000000 0.000000 
0.113900 -0.100650 -0.019300 0.000000 0.000000 0.000000 
0.123900 0.023650 -0.085500 0.000000 0.000000 0.000000 
0.096800 -0.129650 0.047100 0.000000 0.000000 0.000000 
0.096300 0.061550 0.010500 0.000000 0.000000 0.000000 
0.094000 0.061750 0.011900 0.000000 0.000000 0.000000 
0.103800 0.077450 -0.014200 0.000000 0.000000 0.000000 
0.091100 0.064150 0.012000 0.000000 0.000000 0.000000 
0.090900 -0.126350 0.044300 0.000000 0.000000 0.000000 
0.089000 -0.128350 0.045000 0.000000 0.000000 0.000000 
0.081000 -0.189350 0.086100 0.000000 0.000000 0.000000 
0.087700 0.068550 0.011900 0.000000 0.000000 0.000000 
0.088300 -0.108950 0.027400 0.000000 0.000000 0.000000 
0.088800 0.087450 -0.020700 0.000000 0.000000 0.000000 
0.097500 -0.064550 -0.076100 0.000000 0.000000 0.000000 
0.080400 -0.131950 0.038800 0.000000 0.000000 0.000000 
0.075400 -0.173550 0.069300 0.000000 0.000000 0.000000 
0.082600 -0.124250 0.035300 0.000000 0.000000 0.000000 
0.078700 -0.135750 0.039500 0.000000 0.000000 0.000000 
0.078300 -0.098850 0.013300 0.000000 0.000000 0.000000 
0.084000 0.004950 -0.101500 0.000000 0.000000 0.000000 
0.068700 -0.154950 0.041900 0.000000 0.000000 0.000000 
0.076000 -0.067950 -0.063900 0.000000 0.000000 0.000000 
0.072000 -0.068350 -0.058100 0.000000 0.000000 0.000000 
0.071700 -0.064250 -0.065200 0.000000 0.000000 0.000000 
0.043800 0.099150 0.014400 0.000000 0.000000 0.000000 
0.047200 -0.083950 -0.014400 0.000000 0.000000 0.000000 
0.043700 -0.124750 0.015300 0.000000 0.000000 0.000000 
0.040000 -0.174050 0.056600 0.000000 0.000000 0.000000 
0.039300 -0.132750 0.025300 0.000000 0.000000 0.000000 
0.034400 -0.138550 0.029900 0.000000 0.000000 0.000000 
0.026000 -0.190450 0.063000 0.000000 0.000000 0.000000 
0.027500 0.086650 0.020900 0.000000 0.000000 0.000000 
0.018100 0.175850 0.027700 0.000000 0.000000 0.000000 
0.018600 0.101050 0.019600 0.000000 0.000000 0.000000 
0.021400 0.076250 0.032300 0.000000 0.000000 0.000000 
0.017300 0.042050 0.046100 0.000000 0.000000 0.000000 
0.021700 -0.082450 -0.021900 0.000000 0.000000 0.000000 
0.021000 -0.144750 0.034300 0.000000 0.000000 0.000000 
0.019100 0.179150 0.031600 0.000000 0.000000 0.000000 
0.014500 0.025550 0.042000 0.000000 0.000000 0.000000 
0.015700 -0.158950 0.041300 0.000000 0.000000 0.000000 
0.015600 -0.204950 0.074200 0.000000 0.000000 0.000000 
0.011400 0.104350 0.028200 0.000000 0.000000 0.000000 
0.014500 -0.010750 0.039300 0.000000 0.000000 0.000000 
0.017500 -0.084150 -0.021200 0.000000 0.000000 0.000000 
0.010300 0.077550 0.049700 0.000000 0.000000 0.000000 
0.010000 -0.120150 0.017800 0.000000 0.000000 0.000000 
0.006100 0.058850 0.059000 0.000000 0.000000 0.000000 
0.000500 0.183350 0.023400 0.000000 0.000000 0.000000 
-0.001400 0.164750 0.016300 0.000000 0.000000 0.000000 
0.002200 -0.151650 0.042400 0.000000 0.000000 0.000000 
0.000700 -0.170950 0.057700 0.000000 0.000000 0.000000 
0.002600 -0.188150 0.069500 0.000000 0.000000 0.000000 
-0.001100 -0.195050 0.082300 0.000000 0.000000 0.000000 
-0.006200 0.088850 0.042000 0.000000 0.000000 0.000000 
-0.007100 0.108550 0.029200 0.000000 0.000000 0.000000 
-0.006900 0.043850 0.047200 0.000000 0.000000 0.000000 
-0.010500 0.015650 0.038000 0.000000 0.000000 0.000000 
-0.012500 0.032450 0.039800 0.000000 0.000000 0.000000 
-0.015800 0.114150 0.027000 0.000000 0.000000 0.000000 
-0.014800 -0.187150 0.084300 0.000000 0.000000 0.000000 
-0.020200 0.160550 0.016200 0.000000 0.000000 0.000000 
-0.029100 0.188550 0.006500 0.000000 0.000000 0.000000 
-0.031200 -0.074950 -0.028200 0.000000 0.000000 0.000000 
-0.029500 -0.108150 0.023000 0.000000 0.000000 0.000000 
-0.032400 0.030450 0.027900 0.000000 0.000000 0.000000 
-0.033900 -0.072950 -0.038600 0.000000 0.000000 0.000000 
-0.033400 0.115450 0.022200 0.000000 0.000000 0.000000 
-0.041000 0.107450 0.016600 0.000000 0.000000 0.000000 
-0.042000 -0.170650 0.056100 0.000000 0.000000 0.000000 
-0.050600 0.189650 -0.004600 0.000000 0.000000 0.000000 
-0.053700 0.152050 -0.008600 0.000000 0.000000 0.000000 
-0.060600 0.171850 -0.024300 0.000000 0.000000 0.000000 
-0.056600 0.111150 0.007300 0.000000 0.000000 0.000000 
-0.053400 -0.141350 0.029200 0.000000 0.000000 0.000000 
-0.057700 -0.176250 0.061400 0.000000 0.000000 0.000000 
-0.068500 0.167450 -0.028400 0.000000 0.000000 0.000000 
-0.067300 -0.121350 0.005200 0.000000 0.000000 0.000000 
-0.069700 -0.121750 0.006100 0.000000 0.000000 0.000000 
-0.059100 -0.192850 0.074400 0.000000 0.000000 0.000000 
-0.065400 -0.162650 0.048400 0.000000 0.000000 0.000000 
-0.082000 0.083550 -0.050800 0.000000 0.000000 0.000000 
-0.080500 -0.056450 -0.070800 0.000000 0.000000 0.000000 
-0.087400 -0.127350 0.014800 0.000000 0.000000 0.000000 
-0.089800 -0.147650 0.036500 0.000000 0.000000 0.000000 
-0.086600 -0.163650 0.052800 0.000000 0.000000 0.000000 
-0.094200 -0.117950 0.045400 0.000000 0.000000 0.000000 
-0.092600 -0.167850 0.062000 0.000000 0.000000 0.000000 
-0.128300 0.061850 -0.049500 0.000000 0.000000 0.000000 
-0.118900 -0.118150 0.042500 0.000000 0.000000 0.000000 
-0.126100 -0.104650 0.036000 0.000000 0.000000 0.000000 
-0.128500 -0.105950 0.037600 0.000000 0.000000 0.000000 
-0.120000 -0.137050 0.066700 0.000000 0.000000 0.000000 
-0.127300 -0.137250 0.065600 0.000000 0.000000 0.000000 
-0.141900 -0.103850 0.040600 0.000000 0.000000 0.000000 
-0.141200 -0.129050 0.061700 0.000000 0.000000 0.000000 
-0.145400 -0.148550 0.063100 0.000000 0.000000 0.000000 
-0.147500 -0.124550 0.063800 0.000000 0.000000 0.000000 
-0.146700 -0.194550 0.053300 0.000000 0.000000 0.000000 
-0.169700 -0.090150 0.015300 0.000000 0.000000 0.000000 
-0.152000 -0.143250 0.058600 0.000000 0.000000 0.000000 
-0.151000 -0.148250 0.061400 0.000000 0.000000 0.000000 
-0.156300 -0.114450 0.057800 0.000000 0.000000 0.000000 
-0.158700 -0.107150 0.057500 0.000000 0.000000 0.000000 
-0.182100 -0.075250 -0.001300 0.000000 0.000000 0.000000 
-0.164000 -0.124350 0.064700 0.000000 0.000000 0.000000 
-0.158400 -0.141150 0.075900 0.000000 0.000000 0.000000 
-0.160600 -0.144550 0.088600 0.000000 0.000000 0.000000 
-0.182400 -0.090050 0.035800 0.000000 0.000000 0.000000 
-0.162000 -0.141150 0.092000 0.000000 0.000000 0.000000 
0.169000 -0.140350 0.092400 0.000000 0.000000 0.000000 
0.168300 -0.139750 0.091200 0.000000 0.000000 0.000000 
0.165800 -0.141450 0.092300 0.000000 0.000000 0.000000 
0.175200 -0.143550 0.061400 0.000000 0.000000 0.000000 
0.182100 -0.095250 0.021300 0.000000 0.000000 0.000000 
0.150400 -0.172650 0.125100 0.000000 0.000000 0.000000 
0.154900 -0.150550 0.096400 0.000000 0.000000 0.000000 
0.185000 -0.083450 -0.017600 0.000000 0.000000 0.000000 
0.160300 -0.121250 0.052600 0.000000 0.000000 0.000000 
0.141900 -0.190750 0.089800 0.000000 0.000000 0.000000 
0.150700 -0.166650 0.062100 0.000000 0.000000 0.000000 
0.144700 -0.158050 0.060400 0.000000 0.000000 0.000000 
0.144400 -0.158750 0.060600 0.000000 0.000000 0.000000 
0.132200 -0.174650 0.085500 0.000000 0.000000 0.000000 
0.140500 -0.138350 0.055200 0.000000 0.000000 0.000000 
0.137900 -0.141650 0.053000 0.000000 0.000000 0.000000 
0.140500 -0.111650 0.032500 0.000000 0.000000 0.000000 
0.137600 -0.130950 0.047300 0.000000 0.000000 0.000000 
0.142400 -0.101950 0.021800 0.000000 0.000000 0.000000 
0.141300 -0.101050 0.021400 0.000000 0.000000 0.000000 
0.138400 -0.109350 0.028300 0.000000 0.000000 0.000000 
0.133400 -0.147150 0.047400 0.000000 0.000000 0.000000 
0.121100 -0.163250 0.078600 0.000000 0.000000 0.000000 
0.134100 -0.095050 0.005400 0.000000 0.000000 0.000000 
0.131700 -0.110450 0.014800 0.000000 0.000000 0.000000 
0.112800 -0.172350 0.085900 0.000000 0.000000 0.000000 
0.112100 -0.159950 0.076600 0.000000 0.000000 0.000000 
0.130100 -0.075650 -0.018000 0.000000 0.000000 0.000000 
0.123200 -0.129950 0.027800 0.000000 0.000000 0.000000 
0.127300 -0.061650 -0.036000 0.000000 0.000000 0.000000 
0.126400 -0.065550 -0.033500 0.000000 0.000000 0.000000 
0.106300 -0.155850 0.071000 0.000000 0.000000 0.000000 
0.119000 -0.091050 -0.019900 0.000000 0.000000 0.000000 
0.095200 -0.183450 0.089800 0.000000 0.000000 0.000000 
0.094900 -0.166250 0.079200 0.000000 0.000000 0.000000 
0.112600 -0.097650 -0.022200 0.000000 0.000000 0.000000 
0.119800 0.022850 -0.084800 0.000000 0.000000 0.000000 
0.103700 0.087750 -0.019900 0.000000 0.000000 0.000000 
0.116300 0.022350 -0.082200 0.000000 0.000000 0.000000 
0.106000 -0.084950 -0.044300 0.000000 0.000000 0.000000 
0.093400 -0.122150 0.040900 0.000000 0.000000 0.000000 
0.092200 -0.133450 0.050400 0.000000 0.000000 0.000000 
0.085300 -0.162650 0.069500 0.000000 0.000000 0.000000 
0.101300 -0.070150 -0.058100 0.000000 0.000000 0.000000 
0.095000 0.120150 -0.048900 0.000000 0.000000 0.000000 
0.103500 -0.068550 -0.060700 0.000000 0.000000 0.000000 
0.083900 0.073950 0.007800 0.000000 0.000000 0.000000 
0.077900 -0.154250 0.053000 0.000000 0.000000 0.000000 
0.074200 -0.183650 0.078700 0.000000 0.000000 0.000000 
0.095800 -0.041150 -0.087700 0.000000 0.000000 0.000000 
0.097900 -0.047050 -0.092600 0.000000 0.000000 0.000000 
0.078700 -0.123950 0.029700 0.000000 0.000000 0.000000 
0.069500 -0.191650 0.080600 0.000000 0.000000 0.000000 
0.089900 -0.054250 -0.090900 0.000000 0.000000 0.000000 
0.068000 0.155250 0.016100 0.000000 0.000000 0.000000 
0.070400 0.122950 0.010500 0.000000 0.000000 0.000000 
0.089400 -0.004750 -0.102500 0.000000 0.000000 0.000000 
0.086500 -0.047350 -0.091900 0.000000 0.000000 0.000000 
0.067500 0.136050 0.016000 0.000000 0.000000 0.000000 
0.084300 -0.037250 -0.087700 0.000000 0.000000 0.000000 
0.067800 -0.167750 0.051400 0.000000 0.000000 0.000000 
0.067900 -0.089050 -0.009000 0.000000 0.000000 0.000000 
0.063800 0.087250 0.001600 0.000000 0.000000 0.000000 
0.055300 0.150750 0.016700 0.000000 0.000000 0.000000 
0.054100 -0.152550 0.039600 0.000000 0.000000 0.000000 
0.050600 -0.173550 0.057900 0.000000 0.000000 0.000000 
0.050500 0.027550 0.018600 0.000000 0.000000 0.000000 
0.049300 -0.176650 0.060600 0.000000 0.000000 0.000000 
0.055400 -0.077350 -0.029500 0.000000 0.000000 0.000000 
0.049600 -0.112850 0.004000 0.000000 0.000000 0.000000 
0.047700 -0.119850 0.009300 0.000000 0.000000 0.000000 
0.048600 -0.123750 0.012900 0.000000 0.000000 0.000000 
0.043500 0.168750 0.013800 0.000000 0.000000 0.000000 
0.042600 -0.113950 0.008200 0.000000 0.000000 0.000000 
0.039400 -0.173050 0.054400 0.000000 0.000000 0.000000 
0.034900 0.188550 0.027500 0.000000 0.000000 0.000000 
0.038600 -0.131650 0.025100 0.000000 0.000000 0.000000 
0.037800 -0.095450 -0.005200 0.000000 0.000000 0.000000 
0.031900 0.156850 0.014400 0.000000 0.000000 0.000000 
0.029900 0.060450 0.028700 0.000000 0.000000 0.000000 
0.029100 0.067350 0.028700 0.000000 0.000000 0.000000 
0.028100 0.015550 0.033600 0.000000 0.000000 0.000000 
0.026300 0.106550 0.018700 0.000000 0.000000 0.000000 
0.030900 -0.075550 -0.036100 0.000000 0.000000 0.000000 
0.029600 -0.046450 -0.030300 0.000000 0.000000 0.000000 
0.021800 0.096950 0.017400 0.000000 0.000000 0.000000 
0.021200 0.076650 0.032200 0.000000 0.000000 0.000000 
0.015000 0.042350 0.046800 0.000000 0.000000 0.000000 
0.016000 0.054650 0.040800 0.000000 0.000000 0.000000 
0.014700 0.049250 0.042300 0.000000 0.000000 0.000000 
0.014700 -0.201050 0.070000 0.000000 0.000000 0.000000 
0.015900 -0.083050 -0.023600 0.000000 0.000000 0.000000 
0.007400 0.177750 0.026500 0.000000 0.000000 0.000000 
0.010100 0.043350 0.047600 0.000000 0.000000 0.000000 
0.010400 -0.081850 -0.033600 0.000000 0.000000 0.000000 
0.011200 -0.172050 0.051200 0.000000 0.000000 0.000000 
0.009000 -0.197450 0.070500 0.000000 0.000000 0.000000 
0.005200 0.180950 0.026800 0.000000 0.000000 0.000000 
0.000500 -0.098050 0.002700 0.000000 0.000000 0.000000 
0.000900 -0.170850 0.057800 0.000000 0.000000 0.000000 
0.000400 -0.187650 0.074500 0.000000 0.000000 0.000000 
-0.002700 0.100650 0.037500 0.000000 0.000000 0.000000 
-0.005000 0.075850 0.055100 0.000000 0.000000 0.000000 
-0.009100 -0.108350 0.022800 0.000000 0.000000 0.000000 
-0.010600 -0.180750 0.078000 0.000000 0.000000 0.000000 
-0.014500 -0.159150 0.066000 0.000000 0.000000 0.000000 
-0.012900 -0.185850 0.083700 0.000000 0.000000 0.000000 
-0.018700 -0.114050 0.030500 0.000000 0.000000 0.000000 
-0.018500 -0.146550 0.054200 0.000000 0.000000 0.000000 
-0.020100 -0.172750 0.075000 0.000000 0.000000 0.000000 
-0.024500 -0.112250 0.030200 0.000000 0.000000 0.000000 
-0.020600 -0.195050 0.090300 0.000000 0.000000 0.000000 
-0.028500 -0.006050 0.020500 0.000000 0.000000 0.000000 
-0.028500 -0.157150 0.060600 0.000000 0.000000 0.000000 
-0.031200 -0.149850 0.054600 0.000000 0.000000 0.000000 
-0.027500 -0.198050 0.088600 0.000000 0.000000 0.000000 
-0.036000 -0.091150 -0.004500 0.000000 0.000000 0.000000 
-0.033000 -0.118950 0.031300 0.000000 0.000000 0.000000 
-0.042900 0.167550 -0.003500 0.000000 0.000000 0.000000 
-0.039400 0.109750 0.018000 0.000000 0.000000 0.000000 
-0.042400 0.155350 0.005500 0.000000 0.000000 0.000000 
-0.043500 -0.106050 0.014500 0.000000 0.000000 0.000000 
-0.041500 -0.169750 0.055900 0.000000 0.000000 0.000000 
-0.053000 0.180650 -0.018000 0.000000 0.000000 0.000000 
-0.049100 0.085250 0.004900 0.000000 0.000000 0.000000 
-0.054100 0.178350 -0.018900 0.000000 0.000000 0.000000 
-0.052400 0.060550 0.009500 0.000000 0.000000 0.000000 
-0.062800 0.172150 -0.025500 0.000000 0.000000 0.000000 
-0.049700 -0.199650 0.075300 0.000000 0.000000 0.000000 
-0.067500 -0.090950 -0.019200 0.000000 0.000000 0.000000 
-0.062400 -0.127750 0.014000 0.000000 0.000000 0.000000 
-0.056300 -0.175850 0.061300 0.000000 0.000000 0.000000 
-0.063900 -0.142250 0.028800 0.000000 0.000000 0.000000 
-0.061800 -0.154050 0.041600 0.000000 0.000000 0.000000 
-0.066800 -0.138350 0.025000 0.000000 0.000000 0.000000 
-0.073000 -0.117850 0.003600 0.000000 0.000000 0.000000 
-0.092500 0.042250 -0.093000 0.000000 0.000000 0.000000 
-0.082800 0.122450 -0.022100 0.000000 0.000000 0.000000 
-0.082500 -0.121550 0.007300 0.000000 0.000000 0.000000 
-0.086900 -0.094150 -0.011800 0.000000 0.000000 0.000000 
-0.083800 -0.123250 0.009800 0.000000 0.000000 0.000000 
-0.085800 -0.111950 -0.003300 0.000000 0.000000 0.000000 
-0.086600 -0.118150 0.002800 0.000000 0.000000 0.000000 
-0.087600 -0.115450 0.001500 0.000000 0.000000 0.000000 
-0.097100 -0.069950 -0.022100 0.000000 0.000000 0.000000 
-0.094100 -0.071450 -0.019200 0.000000 0.000000 0.000000 
-0.096100 -0.084850 -0.000900 0.000000 0.000000 0.000000 
-0.089600 -0.126250 0.014800 0.000000 0.000000 0.000000 
-0.102400 -0.080650 -0.009700 0.000000 0.000000 0.000000 
-0.091300 -0.152650 0.043900 0.000000 0.000000 0.000000 
-0.116000 -0.061950 -0.051400 0.000000 0.000000 0.000000 
-0.108800 -0.083950 -0.006100 0.000000 0.000000 0.000000 
-0.096200 -0.128850 0.057600 0.000000 0.000000 0.000000 
-0.123000 0.073050 -0.035300 0.000000 0.000000 0.000000 
-0.136200 -0.058850 -0.074700 0.000000 0.000000 0.000000 
-0.136000 -0.070250 -0.067500 0.000000 0.000000 0.000000 
-0.107200 -0.132650 0.057300 0.000000 0.000000 0.000000 
-0.144200 -0.071550 -0.070600 0.000000 0.000000 0.000000 
-0.124100 -0.110050 0.040000 0.000000 0.000000 0.000000 
-0.115400 -0.137650 0.067700 0.000000 0.000000 0.000000 
-0.157900 -0.072550 -0.079900 0.000000 0.000000 0.000000 
-0.161200 -0.062650 -0.085300 0.000000 0.000000 0.000000 
-0.119100 -0.136350 0.065600 0.000000 0.000000 0.000000 
-0.142100 -0.084850 0.020800 0.000000 0.000000 0.000000 
-0.150800 -0.105950 0.037500 0.000000 0.000000 0.000000 
-0.163900 -0.081050 0.000300 0.000000 0.000000 0.000000 
-0.163600 -0.090350 0.015600 0.000000 0.000000 0.000000 
-0.153200 -0.130550 0.059600 0.000000 0.000000 0.000000 
-0.149900 -0.164550 0.071500 0.000000 0.000000 0.000000 
-0.153500 -0.199150 0.060500 0.000000 0.000000 0.000000 
-0.152600 -0.209650 0.061900 0.000000 0.000000 0.000000 
-0.157000 -0.134450 0.063000 0.000000 0.000000 0.000000 
-0.154000 -0.144550 0.075700 0.000000 0.000000 0.000000 
-0.184300 -0.084150 0.016700 0.000000 0.000000 0.000000 
-0.170100 -0.097350 0.054800 0.000000 0.000000 0.000000 
-0.171000 -0.122050 0.072000 0.000000 0.000000 0.000000 
-0.163200 -0.136850 0.092800 0.000000 0.000000 0.000000 
-0.160100 -0.156150 0.101300 0.000000 0.000000 0.000000 
0.156600 -0.159550 0.123200 0.000000 0.000000 0.000000 
0.156500 -0.161850 0.124700 0.000000 0.000000 0.000000 
0.165400 -0.139950 0.091400 0.000000 0.000000 0.000000 
0.163300 -0.140750 0.089400 0.000000 0.000000 0.000000 
0.150300 -0.172850 0.125600 0.000000 0.000000 0.000000 
0.174300 -0.142550 0.060300 0.000000 0.000000 0.000000 
0.151300 -0.165450 0.112900 0.000000 0.000000 0.000000 
0.181700 -0.095450 0.019800 0.000000 0.000000 0.000000 
0.153000 -0.150450 0.096200 0.000000 0.000000 0.000000 
0.157900 -0.137150 0.054700 0.000000 0.000000 0.000000 
0.144100 -0.185950 0.085600 0.000000 0.000000 0.000000 
0.172100 -0.089050 -0.021300 0.000000 0.000000 0.000000 
0.159200 -0.116150 0.018800 0.000000 0.000000 0.000000 
0.140700 -0.154550 0.061400 0.000000 0.000000 0.000000 
0.132200 -0.164050 0.077700 0.000000 0.000000 0.000000 
0.151600 -0.098650 -0.009000 0.000000 0.000000 0.000000 
0.142600 -0.107650 0.027700 0.000000 0.000000 0.000000 
0.141000 -0.113850 0.033800 0.000000 0.000000 0.000000 
0.135400 -0.131850 0.044100 0.000000 0.000000 0.000000 
0.140600 -0.101450 0.022200 0.000000 0.000000 0.000000 
0.133400 -0.121450 0.031400 0.000000 0.000000 0.000000 
0.132500 -0.100150 0.005600 0.000000 0.000000 0.000000 
0.115500 -0.153850 0.071700 0.000000 0.000000 0.000000 
0.110400 -0.173950 0.086000 0.000000 0.000000 0.000000 
0.110200 -0.174850 0.086500 0.000000 0.000000 0.000000 
0.111600 -0.158450 0.075300 0.000000 0.000000 0.000000 
0.126500 -0.061950 -0.036200 0.000000 0.000000 0.000000 
0.098900 -0.176150 0.086100 0.000000 0.000000 0.000000 
0.128200 0.012650 -0.096400 0.000000 0.000000 0.000000 
0.120000 -0.081550 -0.034700 0.000000 0.000000 0.000000 
0.112300 -0.100350 -0.021400 0.000000 0.000000 0.000000 
0.104300 0.085850 -0.019100 0.000000 0.000000 0.000000 
0.101900 0.088150 -0.021400 0.000000 0.000000 0.000000 
0.091000 -0.134450 0.050300 0.000000 0.000000 0.000000 
0.089200 -0.139450 0.051200 0.000000 0.000000 0.000000 
0.087300 -0.143550 0.053800 0.000000 0.000000 0.000000 
0.083900 -0.163750 0.069700 0.000000 0.000000 0.000000 
0.086600 -0.141750 0.051300 0.000000 0.000000 0.000000 
0.099100 0.102850 -0.049600 0.000000 0.000000 0.000000 
0.101800 0.039050 -0.077700 0.000000 0.000000 0.000000 
0.098200 -0.087450 -0.046400 0.000000 0.000000 0.000000 
0.088900 0.087450 -0.020600 0.000000 0.000000 0.000000 
0.101500 -0.032250 -0.100000 0.000000 0.000000 0.000000 
0.080500 -0.137750 0.043200 0.000000 0.000000 0.000000 
0.079700 -0.148150 0.051300 0.000000 0.000000 0.000000 
0.073000 -0.184850 0.078500 0.000000 0.000000 0.000000 
0.098400 -0.040750 -0.084000 0.000000 0.000000 0.000000 
0.077300 -0.140150 0.040400 0.000000 0.000000 0.000000 
0.086900 -0.073650 -0.059300 0.000000 0.000000 0.000000 
0.073900 -0.118250 0.017500 0.000000 0.000000 0.000000 
0.085700 0.010350 -0.098800 0.000000 0.000000 0.000000 
0.066300 0.134550 0.016200 0.000000 0.000000 0.000000 
